X, Y, Z, NX, NY, NZ, IX, IY, IZ, CUTNUM
0.390677754,0.243466127,-0.123775858,0,0.69465837,-0.7193398,1,-8.98E-17,-8.68E-17,20
0.390739329,0.242551525,-0.124659078,0,0.69465837,-0.7193398,0.995337848,0.069380197,0.066999677,20
0.390922157,0.241645184,-0.125534322,0,0.69465837,-0.7193398,0.981799942,0.136615629,0.131928179,20
0.391220742,0.240754882,-0.126394077,0,0.69465837,-0.7193398,0.960617617,0.199885614,0.193027294,20
0.39162672,0.239887144,-0.127232042,0,0.69465837,-0.7193398,0.933502686,0.257933963,0.249083933,20
0.392130798,0.239045568,-0.128044742,0,0.69465837,-0.7193398,0.902240418,0.310203334,0.299559877,20
0.392721552,0.238234706,-0.128827783,0,0.69465837,-0.7193398,0.868554151,0.356500687,0.344268712,20
0.393389599,0.237454824,-0.129580905,0,0.69465837,-0.7193398,0.833751656,0.397176014,0.383548419,20
0.394125694,0.236706279,-0.130303767,0,0.69465837,-0.7193398,0.798840517,0.432713731,0.417866792,20
0.394918705,0.235991127,-0.130994382,0,0.69465837,-0.7193398,0.764637583,0.463586105,0.447679897,20
0.395764259,0.235305587,-0.1316564,0,0.69465837,-0.7193398,0.731453992,0.490511189,0.473681149,20
0.396655598,0.234648994,-0.132290465,0,0.69465837,-0.7193398,0.699574248,0.514011387,0.496375026,20
0.397582992,0.234022884,-0.132895091,0,0.69465837,-0.7193398,0.669265619,0.534486187,0.516147311,20
0.398544846,0.233423491,-0.133473918,0,0.69465837,-0.7193398,0.640450748,0.552452423,0.533497104,20
0.399537175,0.232849434,-0.134028279,0,0.69465837,-0.7193398,0.61311075,0.568276261,0.548778006,20
0.400556225,0.232299559,-0.134559287,0,0.69465837,-0.7193398,0.587200545,0.582263477,0.562285304,20
0.401598779,0.231772714,-0.135068055,0,0.69465837,-0.7193398,0.562651842,0.594673869,0.574269879,20
0.402662091,0.231267773,-0.135555671,0,0.69465837,-0.7193398,0.539383905,0.605727255,0.584944011,20
0.403743819,0.230783648,-0.136023185,0,0.69465837,-0.7193398,0.517310764,0.615609292,0.594486983,20
0.404841972,0.230319305,-0.136471597,0,0.69465837,-0.7193398,0.49634591,0.624476749,0.603050187,20
0.405954858,0.229873765,-0.136901849,0,0.69465837,-0.7193398,0.476405216,0.632462137,0.610761586,20
0.407081034,0.229446115,-0.137314826,0,0.69465837,-0.7193398,0.457408672,0.639677668,0.617729543,20
0.408219267,0.229035501,-0.137711351,0,0.69465837,-0.7193398,0.439281303,0.646218595,0.624046043,20
0.409368505,0.228641134,-0.138092187,0,0.69465837,-0.7193398,0.421953571,0.652166009,0.629789394,20
0.410527836,0.228262284,-0.138458038,0,0.69465837,-0.7193398,0.405361423,0.657589158,0.635026468,20
0.411696474,0.227898278,-0.138809554,0,0.69465837,-0.7193398,0.389446146,0.662547375,0.639814563,20
0.412873731,0.2275485,-0.139147332,0,0.69465837,-0.7193398,0.374154081,0.667091671,0.644202939,20
0.414058999,0.227212381,-0.139471917,0,0.69465837,-0.7193398,0.359436292,0.671266053,0.648234092,20
0.415251736,0.226889404,-0.139783813,0,0.69465837,-0.7193398,0.345248189,0.675108618,0.651944814,20
0.416451454,0.226579093,-0.140083477,0,0.69465837,-0.7193398,0.331549166,0.678652461,0.655367063,20
0.41765562,0.226281516,-0.140370844,0,0.69465837,-0.7193398,0.318324724,0.681920992,0.658523447,20
0.418864685,0.225996009,-0.140646555,0,0.69465837,-0.7193398,0.305529761,0.684942789,0.661441563,20
0.420079505,0.225721899,-0.14091126,0,0.69465837,-0.7193398,0.293119971,0.68774328,0.664145965,20
0.421299757,0.225458847,-0.141165285,0,0.69465837,-0.7193398,0.281067114,0.690341857,0.666655382,20
0.422525134,0.225206545,-0.141408931,0,0.69465837,-0.7193398,0.269345401,0.692755621,0.668986326,20
0.423755043,0.224964766,-0.141642414,0,0.69465837,-0.7193398,0.257933914,0.694999184,0.671152911,20
0.424986028,0.224733823,-0.141865434,0,0.69465837,-0.7193398,0.246838911,0.697080929,0.673163228,20
0.426221447,0.224512754,-0.142078917,0,0.69465837,-0.7193398,0.236006554,0.699019504,0.675035288,20
0.427461044,0.224301344,-0.142283073,0,0.69465837,-0.7193398,0.225418632,0.700825431,0.676779252,20
0.428704558,0.224099397,-0.142478091,0,0.69465837,-0.7193398,0.215058385,0.702508108,0.678404194,20
0.429949733,0.223907032,-0.142663856,0,0.69465837,-0.7193398,0.204926368,0.704073534,0.679915908,20
0.431196777,0.223723971,-0.142840636,0,0.69465837,-0.7193398,0.19500351,0.705530306,0.681322697,20
0.432447267,0.223549778,-0.143008853,0,0.69465837,-0.7193398,0.185261627,0.706887477,0.682633302,20
0.433700947,0.223384317,-0.143168636,0,0.69465837,-0.7193398,0.175688525,0.708151048,0.683853518,20
0.434955963,0.223227658,-0.14331992,0,0.69465837,-0.7193398,0.166284656,0.709325003,0.684987193,20
0.436212074,0.223079649,-0.143462851,0,0.69465837,-0.7193398,0.15703862,0.710414565,0.686039371,20
0.437470981,0.22293994,-0.143597766,0,0.69465837,-0.7193398,0.147925806,0.711425956,0.687016059,20
0.438732414,0.22280844,-0.143724754,0,0.69465837,-0.7193398,0.138937071,0.712363076,0.687921026,20
0.439994139,0.222685249,-0.143843719,0,0.69465837,-0.7193398,0.130077469,0.71322817,0.688756437,20
0.441257257,0.222570128,-0.143954889,0,0.69465837,-0.7193398,0.121328831,0.714025583,0.689526491,20
0.442522535,0.222462907,-0.144058431,0,0.69465837,-0.7193398,0.11267624,0.714758868,0.690234616,20
0.443789546,0.222363536,-0.144154393,0,0.69465837,-0.7193398,0.104113511,0.715430491,0.690883195,20
0.445056038,0.22227209,-0.144242701,0,0.69465837,-0.7193398,0.095646862,0.716041864,0.691473591,20
0.446324336,0.222188311,-0.144323605,0,0.69465837,-0.7193398,0.087252177,0.716596423,0.692009122,20
0.44759414,0.222112159,-0.144397145,0,0.69465837,-0.7193398,0.078923404,0.717095952,0.692491511,20
0.448864171,0.222043642,-0.144463311,0,0.69465837,-0.7193398,0.070661054,0.717541727,0.692921991,20
0.450134767,0.221982677,-0.144522184,0,0.69465837,-0.7193398,0.062455257,0.71793548,0.693302234,20
0.451406507,0.221929187,-0.144573839,0,0.69465837,-0.7193398,0.054294892,0.718278734,0.693633711,20
0.452678912,0.221883152,-0.144618295,0,0.69465837,-0.7193398,0.046175877,0.718572499,0.693917396,20
0.453951146,0.221844558,-0.144655564,0,0.69465837,-0.7193398,0.038096479,0.718817607,0.694154094,20
0.455224162,0.221813343,-0.144685708,0,0.69465837,-0.7193398,0.030043745,0.719015079,0.694344791,20
0.45649764,0.221789493,-0.14470874,0,0.69465837,-0.7193398,0.022012938,0.719165494,0.694490045,20
0.457771027,0.221772997,-0.14472467,0,0.69465837,-0.7193398,0.014000847,0.719269293,0.694590282,20
0.45904469,0.221763835,-0.144733517,0,0.69465837,-0.7193398,0.005998534,0.719326858,0.694645873,20
0.460318446,0.221762003,-0.144735286,0,0.69465837,-0.7193398,-0.001999431,0.719338362,0.694656982,20
0.461592093,0.221767499,-0.144729979,0,0.69465837,-0.7193398,-0.009998363,0.719303844,0.694623648,20
0.462865787,0.221780328,-0.14471759,0,0.69465837,-0.7193398,-0.018005802,0.719223183,0.694545754,20
0.464139204,0.221800499,-0.144698111,0,0.69465837,-0.7193398,-0.026026321,0.71909613,0.69442306,20
0.465412067,0.22182802,-0.144671534,0,0.69465837,-0.7193398,-0.034064821,0.718922314,0.694255209,20
0.466685172,0.221862934,-0.144637818,0,0.69465837,-0.7193398,-0.042133073,0.718701032,0.694041519,20
0.46795763,0.221905249,-0.144596955,0,0.69465837,-0.7193398,-0.050232295,0.718431678,0.693781407,20
0.469229125,0.221954984,-0.144548927,0,0.69465837,-0.7193398,-0.058367398,0.718113448,0.693474096,20
0.470500495,0.222012214,-0.14449366,0,0.69465837,-0.7193398,-0.066550868,0.717745048,0.693118336,20
0.471771353,0.222076976,-0.14443112,0,0.69465837,-0.7193398,-0.074787537,0.717325283,0.692712973,20
0.473040885,0.222149282,-0.144361296,0,0.69465837,-0.7193398,-0.083079616,0.71685298,0.692256876,20
0.474309253,0.222229194,-0.144284125,0,0.69465837,-0.7193398,-0.091435826,0.716326465,0.691748426,20
0.475577824,0.222316879,-0.14419945,0,0.69465837,-0.7193398,-0.099873283,0.71574322,0.691185193,20
0.476844707,0.222412287,-0.144107315,0,0.69465837,-0.7193398,-0.108387787,0.715101947,0.690565923,20
0.478109609,0.222515471,-0.144007671,0,0.69465837,-0.7193398,-0.116985876,0.71440051,0.689888553,20
0.479374194,0.222626661,-0.143900296,0,0.69465837,-0.7193398,-0.125687946,0.713635311,0.689149609,20
0.480637661,0.222745903,-0.143785146,0,0.69465837,-0.7193398,-0.134498133,0.712803769,0.688346598,20
0.481898788,0.222873189,-0.143662227,0,0.69465837,-0.7193398,-0.14341781,0.711903432,0.687477153,20
0.4831573,0.223008596,-0.143531466,0,0.69465837,-0.7193398,-0.152455246,0.710930988,0.686538075,20
0.484416329,0.223152608,-0.143392395,0,0.69465837,-0.7193398,-0.161644255,0.70987983,0.685522984,20
0.485672764,0.22330503,-0.143245203,0,0.69465837,-0.7193398,-0.170974163,0.70874789,0.684429882,20
0.486926212,0.223465955,-0.143089799,0,0.69465837,-0.7193398,-0.180454223,0.707530675,0.683254431,20
0.488176592,0.223635524,-0.142926049,0,0.69465837,-0.7193398,-0.190096702,0.706222906,0.681991533,20
0.489427197,0.223814385,-0.142753324,0,0.69465837,-0.7193398,-0.199941565,0.704814764,0.680631706,20
0.490674393,0.224002239,-0.142571916,0,0.69465837,-0.7193398,-0.209975798,0.703303259,0.679172062,20
0.49191792,0.22419924,-0.142381675,0,0.69465837,-0.7193398,-0.220213106,0.701681293,0.677605749,20
0.493157527,0.224405559,-0.142182435,0,0.69465837,-0.7193398,-0.23066831,0.699940962,0.67592513,20
0.494396044,0.224621933,-0.141973485,0,0.69465837,-0.7193398,-0.241384442,0.698068613,0.674117024,20
0.495631226,0.22484827,-0.141754914,0,0.69465837,-0.7193398,-0.252363124,0.696056643,0.672174087,20
0.496861934,0.225084647,-0.141526646,0,0.69465837,-0.7193398,-0.263615966,0.693895106,0.670086714,20
0.498087893,0.225331313,-0.141288445,0,0.69465837,-0.7193398,-0.275163674,0.691571411,0.667842748,20
0.499308826,0.225588536,-0.141040047,0,0.69465837,-0.7193398,-0.287028838,0.689071378,0.665428495,20
0.500527549,0.225857313,-0.140780491,0,0.69465837,-0.7193398,-0.299267774,0.686371858,0.662821599,20
0.501741285,0.22613748,-0.140509938,0,0.69465837,-0.7193398,-0.311884614,0.683459121,0.660008801,20
0.502949092,0.226429261,-0.140228168,0,0.69465837,-0.7193398,-0.324903019,0.680313702,0.656971305,20
0.504150596,0.226733041,-0.139934811,0,0.69465837,-0.7193398,-0.338355311,0.676912009,0.653686328,20
0.505345392,0.227049242,-0.139629459,0,0.69465837,-0.7193398,-0.352276959,0.673227096,0.65012785,20
0.506533042,0.227378324,-0.139311668,0,0.69465837,-0.7193398,-0.366706927,0.669228083,0.646266047,20
0.507713148,0.227720819,-0.138980925,0,0.69465837,-0.7193398,-0.381689181,0.664879115,0.642066298,20
0.508887258,0.228077934,-0.138636063,0,0.69465837,-0.7193398,-0.397299429,0.660130247,0.637480369,20
0.510052283,0.228449565,-0.138277183,0,0.69465837,-0.7193398,-0.413558507,0.654942736,0.632470848,20
0.51120746,0.228836344,-0.137903675,0,0.69465837,-0.7193398,-0.430522077,0.649261751,0.626984785,20
0.512351921,0.229238958,-0.137514875,0,0.69465837,-0.7193398,-0.448250915,0.643023443,0.620960521,20
0.513484664,0.22965815,-0.137110066,0,0.69465837,-0.7193398,-0.466811113,0.636153221,0.614326025,20
0.51460453,0.230094723,-0.136688473,0,0.69465837,-0.7193398,-0.486274131,0.628563657,0.606996868,20
0.515710169,0.230549541,-0.13624926,0,0.69465837,-0.7193398,-0.506716583,0.620151976,0.598873802,20
0.516800008,0.231023529,-0.135791535,0,0.69465837,-0.7193398,-0.528219594,0.610797037,0.589839843,20
0.517872207,0.231517671,-0.135314348,0,0.69465837,-0.7193398,-0.550867528,0.600355743,0.579756802,20
0.518924612,0.232033004,-0.134816696,0,0.69465837,-0.7193398,-0.57474574,0.588658809,0.568461204,20
0.519954701,0.232570614,-0.134297532,0,0.69465837,-0.7193398,-0.599936904,0.575505878,0.555759566,20
0.520960441,0.233132148,-0.133755266,0,0.69465837,-0.7193398,-0.626540409,0.560645483,0.541409049,20
0.52193976,0.233719709,-0.133187865,0,0.69465837,-0.7193398,-0.65466071,0.543765392,0.525108135,20
0.522886644,0.234333428,-0.132595203,0,0.69465837,-0.7193398,-0.684278294,0.524557664,0.506559447,20
0.523796329,0.234974405,-0.131976218,0,0.69465837,-0.7193398,-0.71537224,0.50263405,0.48538806,20
0.524663335,0.235643629,-0.131329957,0,0.69465837,-0.7193398,-0.747845462,0.477550166,0.461164835,20
0.525484668,0.236344833,-0.130652812,0,0.69465837,-0.7193398,-0.781629351,0.448683296,0.433288423,20
0.526250841,0.237077176,-0.129945596,0,0.69465837,-0.7193398,-0.81628419,0.415527008,0.401269767,20
0.526952458,0.237839648,-0.129209285,0,0.69465837,-0.7193398,-0.851167986,0.377576699,0.364621579,20
0.527584342,0.238636658,-0.128439622,0,0.69465837,-0.7193398,-0.885626944,0.33405951,0.322597519,20
0.528132538,0.239462308,-0.127642301,0,0.69465837,-0.7193398,-0.918259968,0.284842785,0.27506948,20
0.528589208,0.240318104,-0.126815868,0,0.69465837,-0.7193398,-0.947694049,0.229599009,0.221721186,20
0.528942383,0.241197078,-0.125967053,0,0.69465837,-0.7193398,-0.972052235,0.168875575,0.163081247,20
0.529184168,0.242096911,-0.125098094,0,0.69465837,-0.7193398,-0.989618332,0.103383815,0.099836589,20
0.529306817,0.243008218,-0.124218056,0,0.69465837,-0.7193398,-0.99882677,0.034834798,0.033639573,20
0.529306817,0.243924036,-0.12333366,0,0.69465837,-0.7193398,-0.99882677,-0.034834798,-0.033639573,20
0.529184168,0.244835342,-0.122453622,0,0.69465837,-0.7193398,-0.989618332,-0.103383815,-0.099836589,20
0.528942383,0.245735175,-0.121584663,0,0.69465837,-0.7193398,-0.972052235,-0.168875575,-0.163081247,20
0.528589208,0.24661415,-0.120735848,0,0.69465837,-0.7193398,-0.947694049,-0.229599009,-0.221721186,20
0.528132538,0.247469945,-0.119909416,0,0.69465837,-0.7193398,-0.918259968,-0.284842785,-0.27506948,20
0.527584342,0.248295595,-0.119112094,0,0.69465837,-0.7193398,-0.885626944,-0.33405951,-0.322597519,20
0.526952458,0.249092605,-0.118342431,0,0.69465837,-0.7193398,-0.851167986,-0.377576699,-0.364621579,20
0.526250841,0.249855077,-0.117606121,0,0.69465837,-0.7193398,-0.81628419,-0.415527008,-0.401269767,20
0.525484668,0.250587421,-0.116898904,0,0.69465837,-0.7193398,-0.781629351,-0.448683296,-0.433288423,20
0.524663335,0.251288625,-0.116221759,0,0.69465837,-0.7193398,-0.747845462,-0.477550166,-0.461164835,20
0.523796329,0.251957848,-0.115575498,0,0.69465837,-0.7193398,-0.71537224,-0.50263405,-0.48538806,20
0.522886644,0.252598825,-0.114956513,0,0.69465837,-0.7193398,-0.684278294,-0.524557664,-0.506559447,20
0.52193976,0.253212545,-0.114363851,0,0.69465837,-0.7193398,-0.65466071,-0.543765392,-0.525108135,20
0.520960441,0.253800106,-0.11379645,0,0.69465837,-0.7193398,-0.626540409,-0.560645483,-0.541409049,20
0.519954701,0.254361639,-0.113254184,0,0.69465837,-0.7193398,-0.599936904,-0.575505878,-0.555759566,20
0.518924612,0.254899249,-0.11273502,0,0.69465837,-0.7193398,-0.57474574,-0.588658809,-0.568461204,20
0.517872207,0.255414582,-0.112237368,0,0.69465837,-0.7193398,-0.550867528,-0.600355743,-0.579756802,20
0.516800008,0.255908724,-0.111760181,0,0.69465837,-0.7193398,-0.528219594,-0.610797037,-0.589839843,20
0.515710169,0.256382712,-0.111302456,0,0.69465837,-0.7193398,-0.506716583,-0.620151976,-0.598873802,20
0.51460453,0.256837531,-0.110863243,0,0.69465837,-0.7193398,-0.486274131,-0.628563657,-0.606996868,20
0.513484664,0.257274104,-0.11044165,0,0.69465837,-0.7193398,-0.466811113,-0.636153221,-0.614326025,20
0.512351921,0.257693295,-0.110036841,0,0.69465837,-0.7193398,-0.448250915,-0.643023443,-0.620960521,20
0.51120746,0.258095909,-0.109648041,0,0.69465837,-0.7193398,-0.430522077,-0.649261751,-0.626984785,20
0.510052283,0.258482688,-0.109274533,0,0.69465837,-0.7193398,-0.413558507,-0.654942736,-0.632470848,20
0.508887258,0.258854319,-0.108915653,0,0.69465837,-0.7193398,-0.397299429,-0.660130247,-0.637480369,20
0.507713148,0.259211434,-0.108570791,0,0.69465837,-0.7193398,-0.381689181,-0.664879115,-0.642066298,20
0.506533042,0.259553929,-0.108240048,0,0.69465837,-0.7193398,-0.366706927,-0.669228083,-0.646266047,20
0.505345392,0.259883011,-0.107922257,0,0.69465837,-0.7193398,-0.352276959,-0.673227096,-0.65012785,20
0.504150596,0.260199212,-0.107616905,0,0.69465837,-0.7193398,-0.338355311,-0.676912009,-0.653686328,20
0.502949092,0.260502992,-0.107323548,0,0.69465837,-0.7193398,-0.324903019,-0.680313702,-0.656971305,20
0.501741285,0.260794773,-0.107041778,0,0.69465837,-0.7193398,-0.311884614,-0.683459121,-0.660008801,20
0.500527549,0.26107494,-0.106771225,0,0.69465837,-0.7193398,-0.299267774,-0.686371858,-0.662821599,20
0.499308826,0.261343717,-0.106511669,0,0.69465837,-0.7193398,-0.287028838,-0.689071378,-0.665428495,20
0.498087893,0.261600941,-0.106263272,0,0.69465837,-0.7193398,-0.275163674,-0.691571411,-0.667842748,20
0.496861934,0.261847606,-0.10602507,0,0.69465837,-0.7193398,-0.263615966,-0.693895106,-0.670086714,20
0.495631226,0.262083984,-0.105796802,0,0.69465837,-0.7193398,-0.252363124,-0.696056643,-0.672174087,20
0.494396044,0.262310321,-0.105578231,0,0.69465837,-0.7193398,-0.241384442,-0.698068613,-0.674117024,20
0.493157527,0.262526695,-0.105369282,0,0.69465837,-0.7193398,-0.23066831,-0.699940962,-0.67592513,20
0.49191792,0.262733014,-0.105170041,0,0.69465837,-0.7193398,-0.220213106,-0.701681293,-0.677605749,20
0.490674393,0.262930015,-0.1049798,0,0.69465837,-0.7193398,-0.209975798,-0.703303259,-0.679172062,20
0.489427197,0.263117868,-0.104798392,0,0.69465837,-0.7193398,-0.199941565,-0.704814764,-0.680631706,20
0.488176592,0.263296729,-0.104625668,0,0.69465837,-0.7193398,-0.190096702,-0.706222906,-0.681991533,20
0.486926212,0.263466298,-0.104461917,0,0.69465837,-0.7193398,-0.180454223,-0.707530675,-0.683254431,20
0.485672764,0.263627223,-0.104306513,0,0.69465837,-0.7193398,-0.170974163,-0.70874789,-0.684429882,20
0.484416329,0.263779646,-0.104159321,0,0.69465837,-0.7193398,-0.161644255,-0.70987983,-0.685522984,20
0.4831573,0.263923658,-0.10402025,0,0.69465837,-0.7193398,-0.152455246,-0.710930988,-0.686538075,20
0.481898788,0.264059065,-0.103889489,0,0.69465837,-0.7193398,-0.14341781,-0.711903432,-0.687477153,20
0.480637661,0.264186351,-0.10376657,0,0.69465837,-0.7193398,-0.134498133,-0.712803769,-0.688346598,20
0.479374194,0.264305593,-0.10365142,0,0.69465837,-0.7193398,-0.125687946,-0.713635311,-0.689149609,20
0.478109609,0.264416783,-0.103544045,0,0.69465837,-0.7193398,-0.116985876,-0.71440051,-0.689888553,20
0.476844707,0.264519966,-0.103444402,0,0.69465837,-0.7193398,-0.108387787,-0.715101947,-0.690565923,20
0.475577824,0.264615375,-0.103352266,0,0.69465837,-0.7193398,-0.099873283,-0.71574322,-0.691185193,20
0.474309253,0.264703059,-0.103267591,0,0.69465837,-0.7193398,-0.091435826,-0.716326465,-0.691748426,20
0.473040885,0.264782972,-0.10319042,0,0.69465837,-0.7193398,-0.083079616,-0.71685298,-0.692256876,20
0.471771353,0.264855277,-0.103120596,0,0.69465837,-0.7193398,-0.074787537,-0.717325283,-0.692712973,20
0.470500495,0.264920039,-0.103058056,0,0.69465837,-0.7193398,-0.066550868,-0.717745048,-0.693118336,20
0.469229125,0.264977269,-0.103002789,0,0.69465837,-0.7193398,-0.058367398,-0.718113448,-0.693474096,20
0.46795763,0.265027004,-0.102954761,0,0.69465837,-0.7193398,-0.050232295,-0.718431678,-0.693781407,20
0.466685172,0.265069319,-0.102913898,0,0.69465837,-0.7193398,-0.042133073,-0.718701032,-0.694041519,20
0.465412067,0.265104233,-0.102880182,0,0.69465837,-0.7193398,-0.034064821,-0.718922314,-0.694255209,20
0.464139204,0.265131754,-0.102853605,0,0.69465837,-0.7193398,-0.026026321,-0.71909613,-0.69442306,20
0.462865787,0.265151925,-0.102834126,0,0.69465837,-0.7193398,-0.018005802,-0.719223183,-0.694545754,20
0.461592093,0.265164754,-0.102821737,0,0.69465837,-0.7193398,-0.009998363,-0.719303844,-0.694623648,20
0.460318446,0.26517025,-0.10281643,0,0.69465837,-0.7193398,-0.001999431,-0.719338362,-0.694656982,20
0.45904469,0.265168418,-0.102818199,0,0.69465837,-0.7193398,0.005998534,-0.719326858,-0.694645873,20
0.457771027,0.265159257,-0.102827046,0,0.69465837,-0.7193398,0.014000847,-0.719269293,-0.694590282,20
0.45649764,0.265142761,-0.102842976,0,0.69465837,-0.7193398,0.022012938,-0.719165494,-0.694490045,20
0.455224162,0.26511891,-0.102866008,0,0.69465837,-0.7193398,0.030043745,-0.719015079,-0.694344791,20
0.453951146,0.265087695,-0.102896152,0,0.69465837,-0.7193398,0.038096479,-0.718817607,-0.694154094,20
0.452678912,0.265049102,-0.102933421,0,0.69465837,-0.7193398,0.046175877,-0.718572499,-0.693917396,20
0.451406507,0.265003066,-0.102977877,0,0.69465837,-0.7193398,0.054294892,-0.718278734,-0.693633711,20
0.450134767,0.264949576,-0.103029532,0,0.69465837,-0.7193398,0.062455257,-0.71793548,-0.693302234,20
0.448864171,0.264888611,-0.103088405,0,0.69465837,-0.7193398,0.070661054,-0.717541727,-0.692921991,20
0.44759414,0.264820095,-0.103154571,0,0.69465837,-0.7193398,0.078923404,-0.717095952,-0.692491511,20
0.446324336,0.264743942,-0.103228111,0,0.69465837,-0.7193398,0.087252177,-0.716596423,-0.692009122,20
0.445056038,0.264660164,-0.103309015,0,0.69465837,-0.7193398,0.095646862,-0.716041864,-0.691473591,20
0.443789546,0.264568718,-0.103397323,0,0.69465837,-0.7193398,0.104113511,-0.715430491,-0.690883195,20
0.442522535,0.264469346,-0.103493285,0,0.69465837,-0.7193398,0.11267624,-0.714758868,-0.690234616,20
0.441257257,0.264362125,-0.103596827,0,0.69465837,-0.7193398,0.121328831,-0.714025583,-0.689526491,20
0.439994139,0.264247005,-0.103707997,0,0.69465837,-0.7193398,0.130077469,-0.71322817,-0.688756437,20
0.438732414,0.264123814,-0.103826962,0,0.69465837,-0.7193398,0.138937071,-0.712363076,-0.687921026,20
0.437470981,0.263992314,-0.10395395,0,0.69465837,-0.7193398,0.147925806,-0.711425956,-0.687016059,20
0.436212074,0.263852605,-0.104088865,0,0.69465837,-0.7193398,0.15703862,-0.710414565,-0.686039371,20
0.434955963,0.263704596,-0.104231796,0,0.69465837,-0.7193398,0.166284656,-0.709325003,-0.684987193,20
0.433700947,0.263547937,-0.10438308,0,0.69465837,-0.7193398,0.175688525,-0.708151048,-0.683853518,20
0.432447267,0.263382476,-0.104542863,0,0.69465837,-0.7193398,0.185261627,-0.706887477,-0.682633302,20
0.431196777,0.263208282,-0.10471108,0,0.69465837,-0.7193398,0.19500351,-0.705530306,-0.681322697,20
0.429949733,0.263025221,-0.10488786,0,0.69465837,-0.7193398,0.204926368,-0.704073534,-0.679915908,20
0.428704558,0.262832856,-0.105073625,0,0.69465837,-0.7193398,0.215058385,-0.702508108,-0.678404194,20
0.427461044,0.262630909,-0.105268643,0,0.69465837,-0.7193398,0.225418632,-0.700825431,-0.676779252,20
0.426221447,0.262419499,-0.105472799,0,0.69465837,-0.7193398,0.236006554,-0.699019504,-0.675035288,20
0.424986028,0.26219843,-0.105686283,0,0.69465837,-0.7193398,0.246838911,-0.697080929,-0.673163228,20
0.423755043,0.261967487,-0.105909302,0,0.69465837,-0.7193398,0.257933914,-0.694999184,-0.671152911,20
0.422525134,0.261725708,-0.106142785,0,0.69465837,-0.7193398,0.269345401,-0.692755621,-0.668986326,20
0.421299757,0.261473406,-0.106386431,0,0.69465837,-0.7193398,0.281067114,-0.690341857,-0.666655382,20
0.420079505,0.261210354,-0.106640457,0,0.69465837,-0.7193398,0.293119971,-0.68774328,-0.664145965,20
0.418864685,0.260936245,-0.106905161,0,0.69465837,-0.7193398,0.305529761,-0.684942789,-0.661441563,20
0.41765562,0.260650738,-0.107180872,0,0.69465837,-0.7193398,0.318324724,-0.681920992,-0.658523447,20
0.416451454,0.260353161,-0.107468239,0,0.69465837,-0.7193398,0.331549166,-0.678652461,-0.655367063,20
0.415251736,0.260042849,-0.107767903,0,0.69465837,-0.7193398,0.345248189,-0.675108618,-0.651944814,20
0.414058999,0.259719872,-0.108079799,0,0.69465837,-0.7193398,0.359436292,-0.671266053,-0.648234092,20
0.412873731,0.259383754,-0.108404384,0,0.69465837,-0.7193398,0.374154081,-0.667091671,-0.644202939,20
0.411696474,0.259033975,-0.108742162,0,0.69465837,-0.7193398,0.389446146,-0.662547375,-0.639814563,20
0.410527836,0.258669969,-0.109093678,0,0.69465837,-0.7193398,0.405361423,-0.657589158,-0.635026468,20
0.409368505,0.258291119,-0.109459529,0,0.69465837,-0.7193398,0.421953571,-0.652166009,-0.629789394,20
0.408219267,0.257896752,-0.109840365,0,0.69465837,-0.7193398,0.439281303,-0.646218595,-0.624046043,20
0.407081034,0.257486139,-0.11023689,0,0.69465837,-0.7193398,0.457408672,-0.639677668,-0.617729543,20
0.405954858,0.257058488,-0.110649867,0,0.69465837,-0.7193398,0.476405216,-0.632462137,-0.610761586,20
0.404841972,0.256612949,-0.111080119,0,0.69465837,-0.7193398,0.49634591,-0.624476749,-0.603050187,20
0.403743819,0.256148605,-0.111528531,0,0.69465837,-0.7193398,0.517310764,-0.615609292,-0.594486983,20
0.402662091,0.25566448,-0.111996045,0,0.69465837,-0.7193398,0.539383905,-0.605727255,-0.584944011,20
0.401598779,0.255159539,-0.112483661,0,0.69465837,-0.7193398,0.562651842,-0.594673869,-0.574269879,20
0.400556225,0.254632695,-0.112992429,0,0.69465837,-0.7193398,0.587200545,-0.582263477,-0.562285304,20
0.399537175,0.25408282,-0.113523437,0,0.69465837,-0.7193398,0.61311075,-0.568276261,-0.548778006,20
0.398544846,0.253508762,-0.114077798,0,0.69465837,-0.7193398,0.640450748,-0.552452423,-0.533497104,20
0.397582992,0.252909369,-0.114656625,0,0.69465837,-0.7193398,0.669265619,-0.534486187,-0.516147311,20
0.396655598,0.25228326,-0.115261252,0,0.69465837,-0.7193398,0.699574248,-0.514011387,-0.496375026,20
0.395764259,0.251626666,-0.115895316,0,0.69465837,-0.7193398,0.731453992,-0.490511189,-0.473681149,20
0.394918705,0.250941127,-0.116557334,0,0.69465837,-0.7193398,0.764637583,-0.463586105,-0.447679897,20
0.394125694,0.250225974,-0.117247949,0,0.69465837,-0.7193398,0.798840517,-0.432713731,-0.417866792,20
0.393389599,0.249477429,-0.117970811,0,0.69465837,-0.7193398,0.833751656,-0.397176014,-0.383548419,20
0.392721552,0.248697548,-0.118723933,0,0.69465837,-0.7193398,0.868554151,-0.356500687,-0.344268712,20
0.392130798,0.247886685,-0.119506974,0,0.69465837,-0.7193398,0.902240418,-0.310203334,-0.299559877,20
0.39162672,0.247045109,-0.120319675,0,0.69465837,-0.7193398,0.933502686,-0.257933963,-0.249083933,20
0.391220742,0.246177371,-0.121157639,0,0.69465837,-0.7193398,0.960617617,-0.199885614,-0.193027294,20
0.390922157,0.24528707,-0.122017394,0,0.69465837,-0.7193398,0.981799942,-0.136615629,-0.131928179,20
0.390739329,0.244380728,-0.122892638,0,0.69465837,-0.7193398,0.995337848,-0.069380197,-0.066999677,20
0.390677754,0.243466127,-0.123775858,0,0.69465837,-0.7193398,1,-8.98E-17,-8.68E-17,20
